ply
format ascii 1.0
element vertex 1630
property float x
property float y
property float z
end_header
0.119492 -0.200804 -0.771112
-0.085543 -0.408988 -0.737389
-0.081583 -0.123441 -0.732569
0.173354 -0.261827 -0.851886
-0.071300 0.068118 -0.793117
-0.212085 0.028722 -0.802542
-0.189050 -0.162600 -0.840017
-0.367561 0.036066 -0.739132
-0.438550 0.286599 -0.630829
-0.013939 -0.103732 -0.806681
0.145400 -0.219632 -0.736343
0.063810 0.061786 -0.855323
-0.241087 0.345435 -0.682327
-0.138376 0.344521 -0.780325
-0.129922 -0.441616 -0.862540
0.041657 -0.449529 -0.802397
0.122285 -0.367165 -0.814319
-0.059875 -0.417625 -0.854325
0.282108 -0.211914 -0.684629
-0.186659 -0.397175 -0.846005
-0.116685 0.008551 -0.881533
-0.270267 0.202191 -0.763736
0.191698 -0.118745 -0.706563
-0.097894 -0.473915 -0.750367
-0.290829 -0.157452 -0.770145
-0.343012 0.030002 -0.775213
0.369756 -0.026891 -0.761071
-0.362099 -0.089018 -0.734270
0.003269 -0.412014 -0.664153
0.064486 -0.410203 -0.796878
-0.155713 0.265230 -0.823096
0.052598 0.101152 -0.832016
-0.192904 -0.098869 -0.886376
0.034493 0.081181 -0.810000
0.008045 -0.447502 -0.733042
0.143737 -0.233741 -0.658203
-0.410194 -0.004619 -0.735333
-0.330203 -0.327723 -0.818487
-0.188670 -0.073659 -0.800715
-0.101508 0.135123 -0.848013
-0.323304 -0.413792 -0.716902
-0.326710 -0.185771 -0.692602
-0.250181 -0.393755 -0.760920
0.428283 -0.000401 -0.746731
-0.446755 0.236238 -0.663251
-0.183857 -0.197723 -0.811051
-0.282727 -0.342492 -0.865044
0.111249 -0.085619 -0.829204
-0.409722 -0.012480 -0.715009
-0.407278 0.311415 -0.579094
-0.233744 -0.312574 -0.861010
-0.135588 -0.450610 -0.702666
-0.261482 -0.265948 -0.717369
-0.320102 -0.021580 -0.783294
-0.017612 -0.021307 -0.844127
-0.152514 -0.313793 -0.790669
0.070822 -0.492886 -0.815299
-0.075634 0.434629 -0.787252
-0.196158 -0.486332 -0.688094
0.041198 -0.443004 -0.771872
-0.122716 -0.436758 -0.765727
0.080178 -0.357407 -0.657891
-0.299333 -0.462971 -0.669438
0.047729 -0.522388 -0.736061
-0.366040 0.118121 -0.727531
-0.315689 0.431561 -0.665580
-0.282551 0.237638 -0.712426
0.038129 -0.245270 -0.797656
-0.125377 0.088977 -0.818986
-0.078450 -0.141713 -0.865651
-0.107071 0.072852 -0.885780
0.039656 -0.453493 -0.819126
0.164230 -0.367124 -0.678518
0.056752 -0.139149 -0.872294
0.215800 -0.220110 -0.681073
0.240627 -0.320235 -0.778343
-0.203208 -0.484329 -0.762714
-0.064881 -0.049501 -0.873363
-0.093435 -0.496189 -0.744463
0.195152 -0.411887 -0.727950
-0.295362 -0.021316 -0.729401
0.043594 -0.184183 -0.794996
-0.120263 -0.067818 -0.731801
-0.248141 0.088853 -0.743142
0.232884 -0.330695 -0.785912
-0.362505 -0.121529 -0.708799
-0.175396 -0.170893 -0.800370
-0.181557 -0.251132 -0.874944
0.015034 -0.175199 -0.857261
-0.291836 -0.313565 -0.719492
-0.031383 -0.189497 -0.813345
-0.285502 -0.255148 -0.827259
-0.419471 0.059950 -0.733733
0.451490 -0.059724 -0.694025
0.224459 -0.358985 -0.683810
-0.309959 -0.003690 -0.816673
0.023892 -0.203138 -0.831156
0.011508 -0.222079 -0.795426
-0.347064 0.091367 -0.764669
-0.140605 0.414815 -0.708898
-0.183029 0.079759 -0.810924
0.233823 -0.355584 -0.752527
-0.183251 -0.168922 -0.877189
0.097043 0.310663 -0.826377
0.116906 -0.122531 -0.835776
0.032143 0.249202 -0.797622
-0.131518 -0.210303 -0.809187
-0.139370 -0.334369 -0.812752
-0.256158 0.301561 -0.726354
-0.116720 0.266615 -0.825069
-0.405339 0.262531 -0.654713
-0.103020 0.398356 -0.798324
0.146985 -0.133675 -0.728557
-0.077653 -0.319464 -0.755108
-0.367223 -0.315047 -0.827649
-0.302121 0.283106 -0.711321
0.271875 -0.148689 -0.745731
0.080311 -0.211217 -0.776394
0.245985 -0.261522 -0.672300
-0.127605 -0.378551 -0.695612
0.095205 -0.152489 -0.860931
0.050683 0.213157 -0.835171
0.212937 -0.094011 -0.735363
-0.352378 -0.246181 -0.716664
0.022972 -0.416749 -0.770086
-0.090083 0.355904 -0.836398
-0.340019 -0.309000 -0.715967
-0.144336 0.205642 -0.780878
-0.369023 -0.060831 -0.752899
0.287290 -0.089846 -0.783158
-0.092008 -0.065531 -0.845923
0.066681 -0.089170 -0.837313
0.125311 -0.239228 -0.808452
0.062570 -0.088162 -0.824847
0.068517 -0.477739 -0.659770
0.059175 -0.341569 -0.698011
0.332056 -0.177238 -0.732739
-0.032527 -0.103244 -0.823015
-0.391509 0.015936 -0.741950
-0.253213 -0.248404 -0.702154
0.035947 0.041947 -0.844917
-0.285831 0.022710 -0.805178
0.039721 -0.129119 -0.847135
-0.399875 0.213624 -0.727665
-0.082058 0.220761 -0.862604
-0.346733 -0.191968 -0.824068
-0.026153 -0.326938 -0.789647
-0.255029 -0.241549 -0.743275
-0.220495 -0.467407 -0.692940
-0.328681 -0.051955 -0.788310
-0.100162 0.364271 -0.781010
-0.346012 0.040013 -0.753947
-0.120759 -0.437180 -0.834374
-0.016976 -0.401597 -0.794934
-0.450597 0.291246 -0.669077
-0.117702 -0.271535 -0.808082
0.427812 0.010423 -0.731396
-0.408909 -0.105581 -0.756357
-0.130789 0.291481 -0.831495
-0.021488 -0.306627 -0.759393
-0.025895 -0.409874 -0.756918
-0.198351 -0.146116 -0.898344
0.014666 -0.466546 -0.674431
-0.224002 -0.057995 -0.816295
0.037823 0.278664 -0.829362
-0.072340 -0.311048 -0.766644
0.069848 0.202858 -0.794988
-0.279139 -0.315753 -0.805544
-0.082470 -0.435118 -0.868970
-0.205216 0.129201 -0.778566
-0.379544 -0.283614 -0.738662
0.059474 -0.094441 -0.824517
-0.299487 -0.262480 -0.791567
-0.376728 -0.115416 -0.819183
-0.107551 0.365722 -0.762139
-0.033628 -0.408953 -0.773372
0.106897 -0.127285 -0.789314
0.242559 -0.217794 -0.729186
0.092464 -0.510857 -0.746756
-0.345062 -0.293098 -0.726966
-0.147312 0.466531 -0.742849
-0.398531 -0.174560 -0.765512
-0.277245 0.449520 -0.702533
0.066570 -0.257462 -0.840984
-0.214009 -0.120552 -0.839854
-0.453814 0.331384 -0.587497
-0.012624 -0.037283 -0.827124
-0.386933 -0.311435 -0.728140
0.086257 -0.363842 -0.647954
-0.041127 -0.072041 -0.807362
0.220195 -0.347721 -0.681183
-0.008414 0.018915 -0.820133
-0.042464 -0.411162 -0.817438
0.104211 -0.268744 -0.786381
-0.024366 -0.041632 -0.900673
-0.214359 -0.317017 -0.867023
0.055411 0.023126 -0.810685
-0.000669 -0.290659 -0.768210
-0.095166 -0.148160 -0.726711
0.051130 0.386064 -0.751864
0.031628 0.028205 -0.819750
-0.274870 -0.227030 -0.833336
-0.375159 0.106250 -0.735345
-0.340282 -0.119410 -0.718663
-0.129323 -0.087099 -0.872509
-0.235145 -0.060277 -0.886752
-0.024130 -0.354747 -0.784235
-0.255938 0.290502 -0.753935
0.016071 -0.493852 -0.805136
-0.239167 0.280823 -0.726541
-0.132249 0.434240 -0.728264
-0.408181 0.223718 -0.608270
-0.014174 -0.037098 -0.861736
-0.092061 0.477498 -0.764931
-0.378815 0.178035 -0.674418
-0.246529 0.250803 -0.708665
0.058270 -0.125560 -0.869144
-0.204314 -0.487063 -0.696367
-0.239520 -0.058103 -0.848637
-0.443753 0.122353 -0.706700
0.296543 -0.075184 -0.778272
0.059429 -0.150554 -0.843598
0.092211 -0.197123 -0.698095
-0.059270 -0.210734 -0.745907
0.048105 -0.185498 -0.791387
-0.065848 -0.292849 -0.746519
-0.156900 -0.002220 -0.886187
-0.162530 -0.168265 -0.723417
0.156509 -0.411153 -0.817721
-0.216734 -0.144905 -0.716544
-0.149133 -0.241637 -0.716087
-0.264673 -0.041921 -0.723500
-0.191351 -0.020410 -0.753208
-0.236724 -0.427064 -0.698420
-0.103946 0.032123 -0.828098
0.334035 -0.088542 -0.715309
0.073578 0.492027 -0.760922
-0.279760 -0.447652 -0.648914
-0.117311 -0.126850 -0.897074
-0.138242 0.021393 -0.871212
-0.057415 -0.415183 -0.837443
-0.081728 -0.366486 -0.725965
0.108605 -0.168176 -0.734683
-0.089847 -0.450519 -0.686316
-0.079836 -0.233426 -0.796962
-0.226425 0.327592 -0.720620
-0.142785 -0.393076 -0.861266
-0.138756 -0.415594 -0.745879
-0.235213 -0.288026 -0.814143
0.061946 -0.444569 -0.813036
-0.252986 -0.027977 -0.798380
-0.270850 -0.162178 -0.862264
-0.218900 -0.164897 -0.854880
-0.073120 -0.033912 -0.819989
-0.027348 -0.189601 -0.765700
-0.366354 -0.372029 -0.713417
0.003794 -0.347414 -0.842651
-0.107603 -0.235880 -0.731644
-0.214622 -0.196063 -0.776979
-0.164725 -0.472869 -0.709333
0.222162 -0.221714 -0.718992
0.055957 0.258615 -0.860658
0.351774 -0.083915 -0.747077
0.348994 -0.014569 -0.780813
0.254462 -0.168656 -0.721254
-0.013628 -0.243217 -0.749462
-0.151451 0.407207 -0.751422
-0.031307 -0.243644 -0.803533
-0.025601 -0.128355 -0.793932
-0.085579 0.417450 -0.737142
-0.207955 -0.076141 -0.796277
0.195554 -0.267115 -0.792252
-0.169361 -0.314803 -0.695959
-0.177898 -0.002256 -0.790256
-0.154782 -0.389647 -0.675283
-0.363869 -0.131468 -0.804466
-0.365164 0.023686 -0.747828
0.069429 -0.459741 -0.750863
-0.083574 0.072773 -0.822306
0.073332 -0.215211 -0.855536
-0.121049 -0.149169 -0.800289
-0.122657 -0.266455 -0.795769
0.111433 -0.445274 -0.791745
-0.382520 0.014197 -0.774283
-0.254015 0.129895 -0.786488
-0.269416 0.286849 -0.728051
-0.004821 -0.202175 -0.761032
0.219247 -0.311621 -0.675466
-0.186529 -0.365080 -0.819041
-0.057075 -0.456010 -0.703664
-0.286997 -0.085736 -0.719405
0.159741 -0.356057 -0.756869
0.010799 -0.355242 -0.843266
-0.214472 -0.002226 -0.734482
0.419183 -0.002290 -0.760994
-0.291074 -0.204906 -0.719769
0.015557 -0.317766 -0.881090
0.141298 -0.415328 -0.829581
-0.292262 -0.155877 -0.806306
0.004836 -0.324360 -0.836812
0.102183 0.203701 -0.829655
0.312311 -0.124424 -0.781920
-0.366159 -0.219350 -0.783225
0.078936 0.203276 -0.824819
-0.311670 -0.261376 -0.707720
-0.237365 -0.433557 -0.809856
0.344696 -0.107532 -0.791106
-0.210224 -0.342374 -0.700756
0.027856 -0.491412 -0.677557
-0.054313 0.148742 -0.801377
0.043107 -0.158229 -0.876565
0.107888 -0.099655 -0.817477
-0.402733 -0.202023 -0.770477
-0.236644 0.174133 -0.778527
-0.299854 -0.055651 -0.819821
0.112025 -0.291843 -0.679106
0.040583 -0.366744 -0.858486
-0.423269 0.193226 -0.696941
0.017154 -0.435094 -0.659303
0.273711 -0.109833 -0.802200
-0.263833 0.208283 -0.816915
0.161117 -0.318841 -0.860261
-0.340455 -0.009408 -0.702013
0.061184 -0.051817 -0.801928
-0.075337 0.386328 -0.814767
0.158674 -0.326629 -0.800477
0.287257 -0.115992 -0.666494
0.319606 -0.099565 -0.771920
0.022092 -0.287253 -0.891673
-0.265143 0.188565 -0.735692
-0.172883 -0.209953 -0.878207
-0.312479 0.447437 -0.679147
-0.115480 -0.176523 -0.890905
0.216137 -0.107124 -0.692560
-0.274068 0.078744 -0.837015
0.021601 0.068791 -0.792992
0.090204 0.191870 -0.839761
-0.227585 -0.473514 -0.679627
0.120846 -0.147452 -0.721501
-0.303595 0.307176 -0.790379
-0.308016 0.405372 -0.734714
-0.057125 -0.473691 -0.845180
0.028249 0.224568 -0.874883
-0.008536 -0.349816 -0.775111
-0.244955 -0.334643 -0.769741
0.085811 -0.168783 -0.866758
-0.192149 -0.406747 -0.723879
0.257660 -0.290949 -0.746985
-0.199451 -0.266391 -0.701218
-0.211840 -0.084044 -0.850080
-0.361949 -0.353122 -0.802815
0.053409 -0.131770 -0.829556
-0.454752 0.179387 -0.694179
0.169925 -0.339048 -0.741658
-0.351886 -0.242429 -0.755423
0.178804 -0.191021 -0.825917
-0.432201 0.127668 -0.673732
0.223621 -0.271353 -0.708345
0.053368 -0.239104 -0.752861
-0.327341 -0.403395 -0.730286
0.112719 -0.288430 -0.876642
-0.298074 -0.374677 -0.848800
0.089311 -0.237717 -0.676843
-0.230708 -0.406033 -0.692909
-0.385455 -0.181911 -0.799063
-0.300362 -0.418552 -0.743674
0.128072 -0.264890 -0.683290
0.036120 -0.276122 -0.686445
-0.125071 0.216342 -0.816651
-0.137957 -0.420433 -0.736063
0.225072 -0.211322 -0.663685
-0.138125 -0.001424 -0.754529
-0.235977 0.283560 -0.776515
-0.042946 -0.191654 -0.726254
-0.153455 0.353523 -0.748268
-0.087124 -0.383893 -0.783165
-0.083452 0.490569 -0.712858
0.098788 -0.188864 -0.737170
-0.128650 -0.393039 -0.800981
-0.320798 0.021490 -0.778400
-0.300738 -0.164533 -0.715790
-0.087765 -0.212400 -0.738748
-0.314317 0.394733 -0.728704
0.243266 -0.143964 -0.691927
-0.275405 -0.161023 -0.763972
0.149378 -0.375666 -0.840317
-0.096842 0.229766 -0.857965
0.066452 -0.194506 -0.790686
-0.194244 -0.389159 -0.876013
0.014234 -0.447564 -0.718832
-0.295106 -0.078195 -0.751474
-0.071246 0.429679 -0.770345
-0.281774 -0.155873 -0.862192
-0.099338 -0.513026 -0.720542
0.035442 -0.196227 -0.852575
-0.105573 -0.372502 -0.793201
-0.240482 0.120755 -0.851493
-0.210574 0.211460 -0.777990
-0.061994 -0.039802 -0.829103
-0.081736 -0.469208 -0.847859
0.201424 -0.267152 -0.709365
-0.166956 -0.141427 -0.844473
-0.192380 -0.174709 -0.786455
-0.230482 -0.250872 -0.753732
-0.269126 0.421614 -0.694342
-0.106709 0.183569 -0.853259
0.042653 -0.035059 -0.764367
-0.081094 -0.117480 -0.802765
-0.290570 0.186704 -0.759808
-0.123877 0.515927 -0.743041
-0.019049 -0.227190 -0.800275
0.078409 0.147648 -0.847691
0.082627 -0.459164 -0.750844
-0.010126 -0.375506 -0.803698
-0.220470 -0.203427 -0.790990
-0.353985 -0.125680 -0.749628
0.192368 -0.169464 -0.787785
-0.109001 -0.207769 -0.893969
-0.214087 -0.432741 -0.674179
0.393412 -0.079796 -0.766693
-0.102689 -0.516956 -0.798440
-0.249875 -0.245293 -0.736267
-0.309611 0.230994 -0.796424
0.169267 -0.236495 -0.673901
-0.320105 -0.396991 -0.820320
0.123951 -0.425045 -0.713974
-0.404202 0.195595 -0.730731
-0.136645 -0.081916 -0.850232
-0.275720 0.207683 -0.783569
-0.158770 -0.129996 -0.798246
0.114708 -0.214517 -0.846074
-0.314672 -0.189311 -0.865609
-0.122834 0.447117 -0.777428
-0.031601 -0.330365 -0.779000
-0.411732 0.123410 -0.723883
-0.037766 0.041038 -0.781081
0.035603 0.286425 -0.869531
-0.235111 -0.177374 -0.709884
0.105682 -0.139143 -0.806041
-0.286823 -0.479536 -0.729235
-0.274730 -0.127512 -0.776317
0.133244 -0.300519 -0.804368
0.051896 -0.258804 -0.882271
0.062834 -0.262011 -0.717829
-0.076398 0.017643 -0.850460
-0.133714 0.447272 -0.707636
0.367629 -0.096193 -0.668646
0.094514 -0.269182 -0.816733
-0.122711 0.194957 -0.785430
0.064501 0.278276 -0.844838
-0.235090 -0.203784 -0.751455
0.022455 -0.225952 -0.711851
-0.415795 -0.089388 -0.800931
0.206435 -0.100791 -0.703059
-0.132620 -0.296426 -0.887817
0.266133 -0.251274 -0.696617
0.076988 -0.263269 -0.836967
0.009552 -0.486405 -0.824504
0.021239 -0.125570 -0.785720
0.019149 -0.182278 -0.803728
0.209903 -0.293755 -0.782155
0.114952 0.468252 -0.799513
-0.173448 -0.325296 -0.754748
0.148527 -0.379064 -0.690999
-0.246046 -0.415215 -0.662699
-0.022006 -0.075160 -0.775757
0.246366 -0.229200 -0.781074
0.135168 -0.144949 -0.727023
-0.290776 0.458797 -0.636473
-0.380205 -0.092905 -0.793897
0.154679 -0.394904 -0.680677
-0.119229 -0.003587 -0.778108
-0.103136 0.002428 -0.767868
-0.024392 -0.121935 -0.840120
-0.325534 -0.182323 -0.713626
-0.338168 -0.048625 -0.766464
-0.378718 -0.321148 -0.705755
-0.143258 0.525068 -0.718441
-0.081422 -0.074150 -0.733835
-0.443757 0.245765 -0.594569
-0.258773 -0.287964 -0.870122
0.002461 -0.445262 -0.709812
-0.218564 0.039615 -0.847439
-0.064653 -0.064664 -0.766083
0.013336 -0.075212 -0.869706
-0.094647 0.117280 -0.872794
-0.406514 0.091827 -0.785454
-0.318699 -0.423609 -0.669879
-0.280362 -0.106974 -0.796575
-0.397287 0.055693 -0.792591
-0.437477 0.278734 -0.652214
-0.272884 0.355876 -0.720422
-0.283095 -0.358111 -0.702051
0.056271 0.156477 -0.768749
-0.132468 -0.048545 -0.845256
-0.011954 0.085969 -0.813322
-0.110742 -0.270478 -0.747259
0.226956 -0.205803 -0.800706
0.143980 -0.201851 -0.672576
0.081873 -0.491421 -0.693669
-0.319258 -0.168802 -0.829147
-0.307936 -0.044862 -0.715771
-0.166766 -0.266264 -0.719748
-0.093833 0.197957 -0.821922
-0.210404 -0.310963 -0.893318
0.180900 -0.294887 -0.654419
0.076454 0.261459 -0.834511
-0.025722 -0.433462 -0.851847
-0.101827 0.220491 -0.845283
0.010739 -0.254907 -0.865011
0.038670 -0.397860 -0.653960
-0.013120 -0.295667 -0.760078
-0.368410 -0.026221 -0.714397
-0.283514 0.248418 -0.813863
-0.408092 -0.023980 -0.714708
-0.173824 0.012438 -0.827042
0.273999 -0.193844 -0.795733
0.038109 -0.182344 -0.790629
-0.430872 0.206812 -0.646625
-0.133759 -0.088818 -0.834603
-0.243939 -0.214963 -0.729815
-0.074733 0.365979 -0.804047
0.181497 -0.131577 -0.735825
-0.429239 0.129722 -0.718557
0.251136 -0.284705 -0.722815
0.418276 -0.016033 -0.715448
-0.268972 0.152952 -0.821274
-0.166575 -0.232726 -0.830723
0.433178 -0.007365 -0.718638
0.135708 -0.156314 -0.715234
0.248929 -0.123399 -0.682324
-0.246238 -0.483807 -0.799651
0.107887 -0.351155 -0.869005
-0.255561 -0.019308 -0.774202
-0.001005 -0.434927 -0.764137
-0.111937 0.447788 -0.684644
-0.075201 -0.452192 -0.748309
0.091851 -0.172032 -0.716855
-0.030501 -0.090345 -0.860169
0.121344 -0.323946 -0.813912
0.270357 -0.211069 -0.696817
-0.130457 -0.222056 -0.809723
-0.271971 0.217370 -0.770576
0.311713 -0.036122 -0.715071
-0.273472 -0.292488 -0.782851
-0.226756 0.020984 -0.790204
0.176773 -0.221397 -0.704658
0.328151 -0.110565 -0.794219
-0.056070 -0.471403 -0.844763
0.353164 -0.063981 -0.791941
-0.071117 0.332766 -0.829009
0.270653 -0.180715 -0.697074
0.268884 -0.131816 -0.727089
0.100019 -0.051731 -0.839921
-0.236558 0.323020 -0.736469
-0.162208 -0.171046 -0.808989
-0.378658 0.256722 -0.680437
-0.257405 -0.346650 -0.828403
0.025675 -0.373465 -0.844672
0.139598 -0.198949 -0.839170
-0.056504 -0.516776 -0.724715
-0.223165 0.242413 -0.737694
-0.258885 0.328896 -0.751979
-0.413139 0.315144 -0.655346
-0.441986 0.201316 -0.733465
0.172929 -0.350817 -0.659474
0.075211 -0.189238 -0.726123
0.033746 -0.350898 -0.783362
0.254763 -0.051859 -0.692874
0.302819 -0.036628 -0.753323
-0.098813 -0.166989 -0.886313
-0.230106 -0.072897 -0.751828
-0.149547 -0.066176 -0.780505
-0.003763 -0.391852 -0.796635
-0.266268 0.341807 -0.758493
0.349443 -0.020637 -0.667948
-0.200164 -0.320526 -0.821656
-0.198111 -0.168046 -0.881507
-0.297050 -0.304299 -0.702481
-0.361448 -0.278670 -0.792659
0.047808 0.202982 -0.851646
0.095958 -0.034487 -0.882613
-0.141606 -0.504380 -0.715000
-0.161251 -0.206981 -0.889002
0.144544 -0.365412 -0.816134
-0.136006 -0.033348 -0.765137
-0.419125 0.018746 -0.792794
-0.014061 -0.022938 -0.808419
-0.106610 0.147463 -0.775913
-0.154988 -0.102047 -0.741590
-0.088298 0.220140 -0.788780
-0.141502 -0.135848 -0.862427
-0.258406 -0.352124 -0.694890
0.081725 -0.509700 -0.790407
-0.011527 -0.352740 -0.807127
-0.077546 -0.086145 -0.780327
0.023824 -0.396635 -0.855611
0.100925 -0.402053 -0.794904
-0.082404 -0.375066 -0.882159
-0.315973 -0.344092 -0.839569
-0.064280 0.382453 -0.733671
-0.148731 -0.000777 -0.824934
0.293928 -0.064441 -0.724022
-0.468923 0.307341 -0.632077
-0.228715 0.049359 -0.795758
-0.243998 -0.412320 -0.692176
0.071688 0.395522 -0.848951
0.094777 -0.447368 -0.749643
-0.129220 -0.254075 -0.782172
0.107221 0.197437 -0.804719
0.178892 -0.246233 -0.769103
-0.220221 0.149209 -0.835414
-0.175158 -0.481889 -0.795669
0.190203 -0.277481 -0.691972
-0.235828 -0.408542 -0.824758
-0.253939 -0.265434 -0.738292
0.134920 -0.362263 -0.861660
0.023673 0.265323 -0.777127
0.283799 -0.087207 -0.685512
-0.310120 0.394618 -0.675725
-0.315455 -0.418785 -0.710004
0.106913 0.132131 -0.825963
-0.081174 -0.238221 -0.853487
0.099160 -0.226691 -0.791111
-0.092994 0.009649 -0.896898
-0.176230 -0.203030 -0.761254
-0.238229 0.353281 -0.738951
-0.154448 -0.362254 -0.700536
-0.036015 -0.305113 -0.707401
-0.402303 -0.227210 -0.759066
0.386154 -0.007672 -0.734679
-0.114215 0.254149 -0.771244
0.136201 -0.257520 -0.826830
-0.127515 -0.374732 -0.747703
-0.268831 0.122823 -0.787594
0.147805 -0.164988 -0.708726
-0.111760 -0.486476 -0.693127
0.075593 -0.048603 -0.775121
-0.126178 -0.285064 -0.779466
-0.054626 0.018499 -0.853582
0.093969 -0.053544 -0.801709
-0.231951 -0.486500 -0.736443
-0.244747 -0.091155 -0.807722
-0.271647 -0.314404 -0.728865
-0.072689 0.395630 -0.741866
-0.437330 0.277915 -0.587548
-0.007425 -0.374498 -0.704184
-0.336100 -0.340721 -0.793990
-0.113408 0.339160 -0.842627
-0.132460 0.447234 -0.703561
-0.141973 -0.352887 -0.877091
-0.125220 -0.174798 -0.868280
0.124425 -0.186526 -0.808681
0.338575 -0.028578 -0.674436
-0.261127 0.136428 -0.833096
-0.052684 -0.413206 -0.685311
0.279911 -0.033209 -0.757492
0.256267 -0.222866 -0.787627
-0.189789 -0.384098 -0.829782
0.002892 -0.465239 -0.684958
0.127607 -0.317320 -0.707045
-0.168585 -0.370507 -0.806356
0.084796 0.401036 -0.783495
-0.440476 0.359205 -0.594021
-0.030777 -0.370185 -0.763127
0.012417 -0.265020 -0.736156
-0.008908 -0.311294 -0.763042
-0.188652 -0.385258 -0.698014
-0.272431 0.117987 -0.815468
0.035457 0.465696 -0.793226
0.026620 -0.314456 -0.717964
-0.087204 -0.277666 -0.866677
0.217267 -0.161576 -0.729277
-0.226741 -0.336325 -0.844592
0.020705 -0.026002 -0.837789
-0.062670 -0.305648 -0.858994
-0.344064 -0.036470 -0.738901
0.310299 -0.025040 -0.779019
0.156490 -0.332109 -0.791740
-0.211440 -0.096839 -0.845078
0.114626 -0.172069 -0.871025
-0.306455 -0.476909 -0.681424
-0.028730 -0.239219 -0.789477
0.008296 -0.473101 -0.715415
-0.382456 -0.206638 -0.781676
-0.074267 -0.015489 -0.754366
-0.128133 0.115251 -0.801430
0.257681 -0.297415 -0.740750
0.101860 -0.457241 -0.695121
-0.075052 -0.205320 -0.743398
-0.444982 0.160098 -0.695553
0.078201 -0.331906 -0.661577
0.153486 -0.353998 -0.808817
-0.245314 -0.450056 -0.656269
0.012001 -0.149368 -0.779237
0.196536 -0.304864 -0.839216
0.064462 0.272644 -0.827368
-0.079133 -0.306303 -0.798728
-0.304280 0.406951 -0.720846
-0.029807 -0.201893 -0.803737
-0.028387 -0.016665 -0.870450
-0.282907 -0.298741 -0.797045
-0.238901 -0.435604 -0.783580
-0.275738 0.428278 -0.706818
-0.166533 -0.477244 -0.795293
-0.140268 -0.221562 -0.808760
0.011772 -0.398732 -0.817972
0.239349 -0.286294 -0.716525
-0.143735 -0.260333 -0.776427
-0.404308 -0.030437 -0.727046
-0.003814 -0.027928 -0.809722
-0.290184 -0.269891 -0.847481
0.164642 -0.203264 -0.842474
0.139206 -0.204551 -0.729409
-0.112398 0.055375 -0.822681
0.409870 0.027488 -0.680003
-0.143958 0.450329 -0.688264
-0.370316 -0.189471 -0.721794
-0.226156 -0.055302 -0.768954
0.390468 -0.014369 -0.785012
-0.460591 0.173986 -0.697773
-0.443335 0.232758 -0.651193
-0.088820 -0.459054 -0.712505
-0.140810 -0.382598 -0.842658
0.412318 -0.045836 -0.676350
-0.062308 -0.028699 -0.836745
0.435211 -0.041471 -0.734644
0.241218 -0.276698 -0.762544
0.020299 -0.193481 -0.739777
-0.101717 0.150935 -0.793734
0.264813 -0.219339 -0.704369
-0.115760 -0.162743 -0.859684
0.019852 -0.381670 -0.819109
-0.374032 -0.133629 -0.806220
-0.281746 -0.448036 -0.721819
0.036059 -0.256480 -0.800220
0.116612 -0.191645 -0.741096
-0.408829 -0.193914 -0.751832
-0.293885 -0.439383 -0.660478
0.067009 -0.415787 -0.739223
-0.061457 -0.398934 -0.697567
-0.152899 -0.416375 -0.837137
0.019015 -0.409232 -0.849222
-0.077423 -0.188621 -0.860839
-0.179060 -0.375780 -0.801745
-0.279410 -0.432098 -0.656400
-0.323891 -0.313040 -0.715265
-0.139568 -0.228936 -0.805263
-0.052977 -0.435983 -0.831100
-0.296902 -0.314460 -0.849618
0.153111 -0.288733 -0.713183
-0.425316 0.109760 -0.749630
-0.172676 -0.376758 -0.676169
0.181774 -0.140659 -0.729473
0.118428 -0.378683 -0.855140
-0.015976 -0.117569 -0.894706
0.096302 -0.014443 -0.871495
-0.311807 -0.290302 -0.802635
-0.394077 -0.105776 -0.716221
-0.163312 0.035202 -0.838715
-0.036184 -0.146273 -0.905581
-0.407612 0.018100 -0.778518
0.013819 -0.299804 -0.725996
-0.098478 0.465452 -0.683483
-0.012718 -0.504745 -0.760648
0.015487 -0.281313 -0.821099
-0.065089 0.283197 -0.787530
-0.086452 0.196259 -0.824169
-0.253684 -0.116103 -0.884713
-0.329278 -0.299771 -0.757471
-0.087723 -0.267494 -0.857746
-0.307669 -0.145605 -0.771729
-0.145554 -0.401706 -0.683250
-0.386179 -0.270100 -0.768059
0.105869 -0.292693 -0.681541
0.140222 -0.371969 -0.659891
0.046149 0.133961 -0.847233
-0.251607 0.152844 -0.799171
-0.376067 0.222877 -0.705960
-0.070070 -0.424221 -0.763904
0.035457 -0.155715 -0.739245
0.014065 -0.230973 -0.797111
0.047582 -0.252901 -0.766293
-0.141033 -0.097082 -0.885376
-0.165208 -0.383613 -0.676151
-0.357864 -0.076614 -0.735592
-0.131280 -0.325224 -0.858522
0.140506 -0.315843 -0.662335
-0.138627 -0.399609 -0.844446
-0.371745 -0.325447 -0.722392
0.156844 -0.316488 -0.702391
-0.198027 -0.097752 -0.836483
-0.291068 0.210180 -0.736083
-0.402377 0.149325 -0.730645
0.148537 -0.412891 -0.719146
0.085998 -0.221261 -0.878374
-0.092715 0.421272 -0.702261
0.019855 -0.403834 -0.837875
-0.084081 -0.040411 -0.852187
-0.251469 -0.253998 -0.701253
-0.064564 -0.100950 -0.756328
-0.448118 0.341198 -0.562515
-0.261615 0.023814 -0.755396
0.299404 -0.108058 -0.704080
-0.264392 -0.172893 -0.882389
-0.085669 -0.331751 -0.698903
-0.053653 -0.428581 -0.782950
0.095171 -0.159236 -0.804716
-0.106608 0.037864 -0.783221
-0.102998 -0.478170 -0.825132
-0.288875 -0.209821 -0.734417
-0.090876 0.168634 -0.853593
-0.397931 0.093116 -0.748504
-0.281008 -0.147995 -0.823268
-0.402829 0.258683 -0.628127
-0.153071 0.020306 -0.852417
-0.257913 -0.145334 -0.849174
0.119033 0.363457 -0.793519
-0.090644 0.008412 -0.819327
0.076462 0.405148 -0.745013
-0.013415 -0.379024 -0.781716
0.184243 -0.276621 -0.829872
-0.071164 -0.299236 -0.792446
-0.132653 -0.160976 -0.816807
0.109649 0.180551 -0.823745
-0.296126 -0.349893 -0.763567
0.133826 -0.330031 -0.767362
-0.205671 -0.295352 -0.689362
0.049590 -0.421878 -0.788552
0.036090 0.426599 -0.763245
-0.140940 -0.193226 -0.729162
0.127964 -0.299507 -0.671952
-0.091894 0.273798 -0.864488
0.117696 -0.066241 -0.819462
-0.147159 -0.120684 -0.848678
-0.134617 0.187108 -0.786544
-0.054545 -0.270429 -0.838351
0.021945 -0.279298 -0.875185
-0.179206 -0.279349 -0.850624
0.197313 -0.358362 -0.750119
0.014731 -0.424333 -0.718741
0.141953 -0.303185 -0.686179
-0.171870 -0.259467 -0.720767
-0.011513 -0.144598 -0.800766
-0.086874 -0.012759 -0.782937
-0.224715 -0.430809 -0.839214
0.249501 -0.269026 -0.691448
-0.055686 -0.260955 -0.763437
-0.378079 0.083226 -0.711708
-0.263850 0.370777 -0.658399
-0.036157 -0.482294 -0.712741
0.004155 -0.393711 -0.753605
0.073676 -0.362477 -0.825407
-0.195522 -0.494852 -0.684968
0.081362 0.250466 -0.824094
-0.350746 -0.320225 -0.735719
-0.146632 -0.431924 -0.704028
-0.110729 -0.225128 -0.800016
-0.259885 0.182317 -0.825638
-0.156083 -0.109003 -0.879949
-0.233657 -0.073242 -0.891363
0.124875 -0.236460 -0.842373
-0.359676 0.084357 -0.752451
-0.415197 0.125954 -0.764348
-0.195040 -0.196223 -0.816804
0.066203 -0.202184 -0.716840
0.106438 0.356330 -0.817850
-0.081375 0.130744 -0.866144
-0.180360 -0.223400 -0.799413
-0.373221 -0.368743 -0.778666
-0.231409 0.095608 -0.768211
-0.184306 0.054155 -0.800170
0.030856 0.021137 -0.795413
-0.199435 -0.466064 -0.698904
0.082945 -0.406568 -0.817645
-0.244735 0.130740 -0.839118
0.130203 -0.176279 -0.791502
-0.328444 -0.365421 -0.824892
0.000737 -0.190625 -0.812536
0.333316 -0.154808 -0.779786
-0.249720 -0.304820 -0.749173
-0.251979 -0.388564 -0.856997
-0.147943 -0.032035 -0.807097
-0.300349 0.217854 -0.765965
-0.085426 -0.388496 -0.849555
-0.227281 -0.143768 -0.790534
0.028991 -0.477628 -0.834001
0.041531 -0.084936 -0.746762
-0.071261 -0.091447 -0.741603
-0.375693 0.236864 -0.671013
0.030981 0.161102 -0.827648
-0.110291 -0.002984 -0.832577
0.026096 -0.505221 -0.802943
-0.168500 -0.166891 -0.762531
0.168655 -0.287955 -0.837634
0.103226 0.266104 -0.787826
-0.241052 0.230425 -0.744889
0.107081 0.368164 -0.751522
-0.212995 -0.329429 -0.801511
0.214292 -0.227713 -0.827136
-0.303051 -0.155245 -0.723844
0.073923 -0.394891 -0.708289
0.008119 0.051150 -0.802317
0.015195 -0.125630 -0.880175
-0.189729 -0.364546 -0.684362
-0.162233 -0.287599 -0.776855
-0.387139 -0.307680 -0.732578
0.190232 -0.214734 -0.789912
0.016015 -0.405506 -0.866606
0.095419 -0.075379 -0.808236
-0.120848 -0.431676 -0.812398
-0.012183 -0.041967 -0.868952
-0.160239 -0.235503 -0.877863
0.049414 0.259281 -0.829100
-0.248734 -0.131286 -0.864425
0.002856 -0.097933 -0.875935
0.055597 -0.161941 -0.890186
0.161593 -0.342432 -0.808076
-0.035728 -0.334397 -0.724839
0.076256 -0.270490 -0.856024
0.052735 -0.322900 -0.851347
-0.131036 -0.069929 -0.755046
-0.073647 0.270356 -0.809303
-0.242295 -0.371881 -0.709269
-0.296100 0.333499 -0.689391
-0.109596 -0.113118 -0.891054
-0.240534 -0.160470 -0.791931
-0.082505 -0.146287 -0.870934
-0.247235 -0.062817 -0.852798
0.076976 0.146143 -0.775631
0.035688 -0.202905 -0.892880
-0.417998 -0.094633 -0.746727
-0.235276 -0.130047 -0.784388
-0.346557 -0.201429 -0.816662
-0.056688 -0.350638 -0.829975
0.234886 -0.245938 -0.694039
-0.439330 0.195706 -0.629508
-0.327484 -0.121527 -0.709052
0.069625 -0.393892 -0.638531
-0.002420 0.105002 -0.794958
0.250243 -0.160111 -0.748081
-0.001776 -0.399046 -0.753253
-0.216003 -0.043224 -0.872052
-0.350251 -0.405798 -0.784833
0.044242 -0.118107 -0.822950
-0.104505 0.391196 -0.746566
0.077702 0.403943 -0.765708
-0.011861 -0.423634 -0.830300
0.084373 -0.355120 -0.772350
-0.218998 -0.172349 -0.753594
0.140183 -0.209479 -0.754910
0.429486 -0.054266 -0.682915
0.098954 0.028941 -0.816669
-0.294381 -0.226069 -0.741921
-0.043350 -0.145472 -0.795829
-0.040051 -0.043379 -0.847927
0.327473 -0.090522 -0.654274
-0.324019 -0.164884 -0.739823
0.227139 -0.210900 -0.783159
-0.372369 -0.176724 -0.733325
-0.268486 -0.284427 -0.679666
0.053897 -0.350103 -0.843011
-0.400190 -0.295548 -0.750035
-0.077275 -0.303894 -0.707297
0.154602 -0.214854 -0.722454
-0.093709 0.448580 -0.768598
-0.382444 -0.286978 -0.786200
-0.190885 -0.118106 -0.820173
0.057566 0.296204 -0.829993
0.024818 -0.305373 -0.828051
-0.374520 -0.005283 -0.764796
0.030635 -0.096021 -0.738693
-0.117414 0.121119 -0.780239
-0.258408 0.138730 -0.750994
0.028186 -0.384284 -0.706248
-0.064477 -0.398333 -0.850057
0.244390 -0.260946 -0.755952
0.075447 -0.434181 -0.676897
-0.325959 -0.390112 -0.700248
-0.278229 -0.394619 -0.688697
-0.352376 -0.322007 -0.688605
-0.167185 -0.017535 -0.770664
0.158473 -0.245100 -0.722050
-0.288995 -0.027524 -0.791220
0.019998 -0.174837 -0.878856
-0.253366 0.045940 -0.778700
0.134630 -0.352006 -0.702084
0.013602 0.275362 -0.841374
0.296508 -0.148435 -0.679370
-0.087232 -0.460814 -0.827390
-0.361936 0.113093 -0.746941
-0.144761 -0.437976 -0.770758
0.261667 -0.230120 -0.755061
0.423009 -0.068937 -0.684818
-0.294728 0.093845 -0.783028
-0.208809 -0.036610 -0.866333
-0.388344 -0.101099 -0.715609
-0.351516 -0.089298 -0.770733
-0.089640 -0.442367 -0.844916
-0.325123 -0.316398 -0.723296
-0.117534 0.006277 -0.838247
-0.023389 -0.132724 -0.846232
0.077643 -0.170063 -0.799984
-0.161574 0.005198 -0.838132
-0.024333 -0.040419 -0.755903
-0.016421 -0.071899 -0.791155
-0.237679 -0.070558 -0.793350
-0.073572 -0.268253 -0.859050
-0.371285 0.153328 -0.698384
-0.238234 -0.407560 -0.776487
-0.148640 -0.425086 -0.850348
0.098427 -0.466737 -0.792226
-0.446515 0.304729 -0.626474
0.289195 -0.164374 -0.763753
-0.047521 -0.424584 -0.671445
0.100668 -0.271081 -0.683335
-0.234038 -0.191807 -0.708983
-0.208750 -0.042900 -0.756453
-0.120361 -0.153465 -0.892713
0.151390 -0.368556 -0.743020
-0.024625 -0.430338 -0.865028
0.109602 -0.400194 -0.853927
0.078717 -0.028410 -0.839606
-0.256167 -0.024498 -0.804500
0.057699 -0.442649 -0.845141
-0.223038 -0.260840 -0.847581
-0.342477 -0.241636 -0.735140
-0.098948 -0.310003 -0.714689
-0.288443 -0.105467 -0.757305
-0.346574 0.010294 -0.726840
-0.083050 0.089776 -0.835257
0.088843 -0.267459 -0.829294
-0.222879 -0.414031 -0.722568
-0.156989 -0.297956 -0.766382
0.068144 -0.395991 -0.857387
0.115495 -0.216342 -0.835145
0.383160 -0.085922 -0.774598
-0.259780 -0.334829 -0.698034
-0.098917 -0.184479 -0.735266
-0.084076 -0.204054 -0.805225
-0.060493 0.309320 -0.787354
-0.299487 0.315759 -0.703412
0.021361 -0.521191 -0.758569
0.043948 0.004779 -0.899454
-0.435361 0.280143 -0.568621
-0.091611 -0.453275 -0.772040
0.067783 0.447471 -0.773254
-0.302274 0.170712 -0.758674
-0.096104 -0.453626 -0.687894
0.349900 -0.122673 -0.782015
0.017257 0.059631 -0.882703
-0.176886 -0.172281 -0.757536
0.084066 -0.363041 -0.767821
-0.106284 -0.263684 -0.770097
-0.052282 -0.065937 -0.884887
0.038506 -0.463648 -0.752670
0.372068 -0.086819 -0.714022
0.087473 0.158036 -0.793352
-0.340315 -0.268264 -0.757257
-0.053270 -0.363489 -0.746888
-0.088456 -0.440926 -0.762354
-0.111460 0.270748 -0.845883
-0.346714 -0.165264 -0.703651
0.079297 -0.393242 -0.644477
-0.068391 -0.408348 -0.683877
0.065152 -0.232398 -0.880585
-0.207074 -0.296218 -0.843591
-0.162891 -0.304109 -0.851449
0.228489 -0.322129 -0.699181
0.060790 0.190624 -0.800823
0.058088 -0.159499 -0.814609
-0.123394 0.454996 -0.770552
-0.087152 -0.078830 -0.882736
0.467883 -0.031921 -0.700047
-0.062152 -0.003874 -0.888777
-0.201221 -0.309658 -0.757714
0.260643 -0.207446 -0.673717
-0.116217 0.500464 -0.694942
-0.219155 -0.413540 -0.859990
0.073814 -0.381613 -0.734062
-0.363770 -0.252553 -0.791463
0.003076 -0.282255 -0.820335
-0.202620 -0.035379 -0.782747
-0.002964 -0.476780 -0.720739
-0.232198 0.272546 -0.772015
-0.232058 -0.387022 -0.677591
-0.073702 0.104304 -0.846728
0.259667 -0.070985 -0.667203
-0.036750 -0.498804 -0.737982
-0.161458 -0.205557 -0.794032
0.315645 -0.040360 -0.736262
-0.124765 0.120228 -0.856520
-0.128829 -0.347560 -0.700758
0.328780 -0.028524 -0.715640
-0.003500 -0.062620 -0.844128
0.177335 -0.259652 -0.704459
-0.301526 0.276538 -0.781353
-0.253756 -0.107328 -0.733286
0.247267 -0.089528 -0.672322
0.057562 0.098619 -0.846967
-0.378850 0.139243 -0.770788
-0.283836 0.268615 -0.708894
-0.119749 0.496380 -0.704770
-0.158379 -0.162265 -0.724683
-0.178469 -0.161561 -0.773530
0.200365 -0.180596 -0.793166
-0.433880 0.245215 -0.621066
-0.287989 0.444687 -0.644733
0.052699 -0.481869 -0.727916
-0.286817 0.103325 -0.819897
-0.146372 -0.471569 -0.842243
0.003693 -0.084702 -0.769752
0.126648 -0.166880 -0.799861
-0.110579 -0.010818 -0.777061
-0.106156 -0.154859 -0.883516
0.004038 0.039270 -0.812075
-0.212281 -0.315934 -0.792287
-0.245824 0.366399 -0.664075
0.039932 -0.223610 -0.736529
-0.020971 -0.053108 -0.819489
0.043831 -0.387730 -0.772491
0.069570 -0.352490 -0.739997
-0.283386 0.370164 -0.735670
-0.062146 -0.364573 -0.711019
0.016659 0.211523 -0.778351
-0.088122 -0.019747 -0.760970
-0.098061 -0.118313 -0.861671
0.217144 -0.200179 -0.828816
-0.264243 -0.325862 -0.693826
0.044986 0.346074 -0.849473
-0.350218 -0.249666 -0.782655
-0.190083 -0.173873 -0.723614
-0.355860 0.069985 -0.738672
-0.352274 -0.226740 -0.732500
-0.269421 -0.426796 -0.806553
0.316434 -0.067777 -0.731391
-0.098187 -0.326331 -0.711184
0.154898 -0.357865 -0.688818
-0.079669 0.079210 -0.860292
-0.283997 -0.250843 -0.783651
-0.348203 -0.182983 -0.847112
-0.253938 0.350749 -0.719085
0.443239 -0.068762 -0.707150
0.233021 -0.261773 -0.662028
-0.348652 -0.196388 -0.749409
0.089077 -0.155484 -0.835947
-0.102837 0.464885 -0.719457
0.033476 -0.398372 -0.703461
-0.333144 -0.154506 -0.838081
0.132895 -0.455944 -0.813487
-0.012639 -0.392374 -0.834453
-0.293894 -0.336658 -0.853819
-0.061906 -0.381588 -0.772575
0.336590 -0.060944 -0.670474
-0.288609 -0.267681 -0.760897
-0.332409 -0.009865 -0.741809
-0.146710 0.284777 -0.846804
-0.419416 0.088989 -0.749802
-0.356688 0.014561 -0.812261
-0.175141 -0.074661 -0.751922
-0.116080 -0.081527 -0.827787
0.001447 0.010270 -0.869793
-0.128477 -0.322945 -0.763326
0.289330 -0.009096 -0.724879
0.049121 -0.513588 -0.759820
-0.280619 0.360792 -0.754077
-0.131267 -0.122955 -0.873512
-0.366700 -0.301656 -0.782043
-0.010411 -0.454012 -0.771659
-0.276321 -0.320711 -0.789569
-0.116805 -0.449424 -0.855060
-0.362584 -0.171652 -0.714748
-0.068474 -0.061204 -0.892272
-0.020592 -0.471401 -0.800022
-0.131868 0.446884 -0.740563
-0.278085 -0.183046 -0.795831
0.072130 -0.315703 -0.719142
0.044749 0.286204 -0.860257
-0.302030 -0.003140 -0.786883
-0.141784 -0.299797 -0.723377
-0.316482 -0.168444 -0.837431
-0.080173 0.308996 -0.771554
0.051641 0.142582 -0.882400
-0.321759 0.266527 -0.739249
-0.284983 -0.453472 -0.706123
-0.347947 -0.374410 -0.700606
0.324002 -0.150034 -0.714421
-0.039098 -0.501481 -0.764754
-0.327030 -0.119465 -0.736505
-0.187767 -0.171156 -0.887336
-0.148455 0.027575 -0.772448
-0.005900 -0.263503 -0.729201
0.207654 -0.275647 -0.828174
-0.043349 0.022739 -0.828778
0.150677 -0.434626 -0.682796
0.035536 -0.094878 -0.856003
-0.177329 -0.516763 -0.788817
0.101914 -0.409017 -0.845486
0.257266 -0.162288 -0.684768
-0.193673 -0.157665 -0.733806
0.155011 -0.191866 -0.811819
0.092888 -0.153638 -0.730993
-0.426864 -0.058571 -0.752219
0.223137 -0.276576 -0.813729
-0.189667 -0.463755 -0.736009
-0.434594 0.158205 -0.672687
0.131986 -0.182778 -0.827328
0.465663 -0.004414 -0.708218
-0.355627 0.002369 -0.711787
-0.163531 -0.402217 -0.798163
0.070933 0.367904 -0.737654
-0.208966 -0.390056 -0.872437
-0.151403 0.255804 -0.810542
0.208337 -0.273008 -0.704544
-0.082359 -0.479374 -0.799199
0.105854 0.013969 -0.816869
-0.016430 0.043313 -0.790313
-0.324991 -0.374918 -0.814733
0.449909 0.007569 -0.735890
-0.268282 0.449356 -0.691248
-0.007760 -0.476354 -0.724341
0.156371 -0.191213 -0.666748
-0.133485 -0.111422 -0.878203
-0.210131 -0.384262 -0.669819
-0.208166 -0.480193 -0.833906
-0.285432 0.049935 -0.806554
-0.447998 0.302729 -0.595419
-0.342154 -0.074873 -0.742500
0.072662 0.060815 -0.802287
-0.135469 -0.502645 -0.806890
-0.445555 0.302007 -0.581351
0.079433 -0.138705 -0.867514
-0.046614 -0.139014 -0.870596
-0.399629 -0.024257 -0.759254
-0.104867 0.101443 -0.869506
0.128916 -0.319207 -0.649213
-0.110020 0.082175 -0.881724
0.104586 0.180891 -0.787704
-0.208659 -0.164317 -0.790113
-0.074730 0.487058 -0.749360
-0.251532 -0.071417 -0.855246
0.153058 -0.197231 -0.697938
0.034646 0.161528 -0.876977
-0.276283 -0.057488 -0.729559
-0.300413 0.205657 -0.754060
-0.078568 0.153280 -0.791475
-0.101220 0.395026 -0.789301
-0.227387 0.011848 -0.874047
-0.338574 -0.376103 -0.695674
0.049242 -0.278388 -0.768585
0.256670 -0.333087 -0.760656
0.238460 -0.265309 -0.685083
-0.118740 0.233610 -0.766843
-0.115220 0.286950 -0.779897
-0.346202 -0.210969 -0.696601
-0.106859 -0.092870 -0.773357
0.051021 -0.333255 -0.846322
-0.142345 0.417620 -0.746188
-0.303896 -0.243772 -0.713131
-0.096745 -0.502896 -0.809317
0.058050 -0.322736 -0.709279
0.031258 -0.312173 -0.663576
-0.088774 0.025207 -0.836782
-0.303493 0.349595 -0.659340
0.073182 -0.329858 -0.720000
-0.297828 -0.135254 -0.721095
-0.156545 -0.503535 -0.695028
-0.195500 0.115824 -0.771284
-0.295619 0.344666 -0.729791
-0.122585 0.440048 -0.761618
0.002347 -0.400909 -0.743537
-0.417688 0.135333 -0.684340
0.295393 -0.027634 -0.675485
-0.089374 -0.348761 -0.783953
-0.005123 -0.054825 -0.860579
-0.410479 -0.070408 -0.731230
-0.152896 0.090943 -0.854996
-0.343393 -0.326218 -0.837252
-0.043860 -0.313288 -0.801452
0.010095 -0.126039 -0.870026
-0.306512 0.221633 -0.735738
-0.115804 -0.036057 -0.775611
-0.056745 -0.423728 -0.841740
0.014575 -0.287799 -0.872006
0.363149 -0.101489 -0.694770
-0.279120 -0.404598 -0.814136
0.119331 -0.308024 -0.869488
-0.367815 -0.173593 -0.818410
0.053714 -0.291834 -0.685086
-0.191889 -0.203141 -0.848752
0.050548 -0.477571 -0.671267
-0.166286 -0.464870 -0.743424
-0.227901 -0.105189 -0.742403
-0.048928 -0.012192 -0.829503
-0.299157 -0.104936 -0.849586
-0.291318 -0.113565 -0.750306
0.271056 -0.114183 -0.713912
-0.236463 -0.414669 -0.765351
-0.294993 -0.292548 -0.834847
0.071104 -0.257839 -0.734203
0.117798 -0.439733 -0.667616
-0.167244 -0.306516 -0.837295
-0.005931 -0.006983 -0.816566
-0.102587 -0.019513 -0.784429
-0.232141 -0.395845 -0.776869
-0.094401 -0.052055 -0.882130
0.103773 -0.455536 -0.770532
0.096976 0.036951 -0.851244
-0.270964 -0.510905 -0.768836
0.220778 -0.361107 -0.786949
-0.300809 -0.372388 -0.676444
-0.274350 0.101922 -0.816378
-0.407591 -0.065151 -0.787273
0.120386 -0.377626 -0.679436
-0.224278 0.195026 -0.740326
-0.393040 0.126440 -0.693936
0.131082 -0.172792 -0.733276
-0.159297 -0.449394 -0.830967
-0.159317 -0.377398 -0.716789
-0.078485 -0.187449 -0.888513
-0.177542 -0.350549 -0.777844
-0.094773 -0.105905 -0.772887
0.016327 -0.281688 -0.705559
-0.442479 0.254600 -0.661192
0.163868 -0.129827 -0.695159
-0.228784 -0.327614 -0.777174
0.236905 -0.090015 -0.690099
-0.192830 -0.217418 -0.866365
-0.037272 -0.227447 -0.765572
-0.234642 0.054434 -0.759468
-0.113919 0.052686 -0.809901
0.051686 -0.342249 -0.800886
-0.242174 -0.342069 -0.770916
0.036001 -0.338999 -0.674704
-0.149523 -0.362591 -0.741693
-0.169938 -0.268920 -0.798030
0.206192 -0.256347 -0.821270
-0.197859 -0.311431 -0.864380
-0.087005 0.230777 -0.769452
-0.139958 -0.360275 -0.775304
-0.051011 0.127075 -0.812171
-0.042080 -0.510987 -0.809676
-0.211204 -0.050867 -0.741337
-0.312078 -0.120570 -0.874208
-0.290547 0.415761 -0.635053
0.067795 -0.490793 -0.812698
-0.086481 0.477107 -0.750359
0.162986 -0.239181 -0.751113
-0.011949 -0.369287 -0.708069
-0.025700 0.013806 -0.782920
0.122298 -0.348715 -0.750294
0.108356 0.202662 -0.823831
-0.190502 0.088636 -0.790780
0.114900 0.331012 -0.765673
-0.169954 -0.134010 -0.874385
-0.139968 -0.310591 -0.768470
0.050537 -0.296616 -0.701586
0.076062 -0.326109 -0.840433
0.193598 -0.250032 -0.744670
-0.283072 -0.345335 -0.690089
0.093616 -0.110611 -0.820791
0.080065 -0.215993 -0.803180
-0.055299 -0.501873 -0.831241
0.330746 -0.056450 -0.747113
0.204594 -0.363860 -0.671596
-0.378747 0.204584 -0.735995
0.045531 0.400180 -0.841509
0.220198 -0.251520 -0.700185
-0.099928 0.057533 -0.815093
0.204594 -0.290316 -0.683335
0.057036 -0.148476 -0.816820
-0.153035 -0.435421 -0.717846
-0.133064 -0.180981 -0.741615
-0.244379 0.117044 -0.846735
-0.064071 -0.477676 -0.703747
-0.363931 -0.241411 -0.712163
0.041696 -0.203647 -0.843862
-0.078540 -0.364222 -0.748760
-0.057474 -0.502549 -0.791576
-0.006593 -0.151921 -0.841829
0.036514 -0.310123 -0.859358
0.073216 -0.276200 -0.819543
-0.429016 0.222145 -0.604662
-0.142044 0.481179 -0.754491
-0.066192 -0.415717 -0.808601
0.403227 -0.079596 -0.765834
-0.333617 -0.282250 -0.811538
0.382310 -0.007353 -0.712760
-0.341934 -0.119405 -0.824579
-0.339883 -0.076585 -0.746500
0.149265 -0.126666 -0.747338
0.046235 -0.192275 -0.825513
-0.237790 -0.387473 -0.818257
-0.040913 -0.152637 -0.853366
0.052113 0.365387 -0.855902
-0.138970 -0.150138 -0.787795
-0.177239 -0.344369 -0.731687
0.132537 -0.418242 -0.684319
0.023508 -0.242259 -0.822949
-0.054262 -0.454990 -0.839430
-0.159290 0.223314 -0.802727
-0.152612 -0.129288 -0.829305
0.104137 0.011204 -0.857478
0.120632 -0.241076 -0.832242
-0.084762 0.336321 -0.816019
0.086841 -0.087066 -0.846135
-0.119598 0.350346 -0.749156
-0.208148 -0.472824 -0.662900
0.278111 -0.085725 -0.675156
-0.387359 0.211815 -0.695851
0.023189 -0.355875 -0.811662
-0.238587 -0.106700 -0.771461
-0.105977 -0.355321 -0.739483
-0.281145 0.065432 -0.816277
-0.214224 -0.035101 -0.779171
-0.043805 -0.330066 -0.822961
0.205059 -0.077935 -0.748658
-0.129714 -0.073236 -0.752544
0.402558 -0.091723 -0.736663
0.319818 -0.055103 -0.768092
0.246146 -0.256789 -0.672349
-0.135716 -0.409716 -0.742253
-0.019960 -0.257251 -0.811764
0.055725 -0.110806 -0.785066
-0.099736 -0.161829 -0.747377
0.071922 0.056158 -0.801612
-0.118091 -0.436133 -0.695283
-0.042563 -0.194586 -0.752049
-0.064087 -0.519173 -0.784029
-0.101528 -0.371818 -0.768549
0.044909 -0.403489 -0.766269
-0.188506 -0.415894 -0.662939
-0.404446 0.150864 -0.742347
0.221952 -0.168115 -0.801949
-0.361791 0.123966 -0.758446
-0.258064 -0.153739 -0.751016
0.135210 -0.299515 -0.808656
-0.206145 0.009736 -0.738660
-0.394127 -0.096768 -0.732307
-0.097308 0.463774 -0.727395
-0.134168 0.404237 -0.727635
-0.030487 -0.108578 -0.813047
-0.053692 -0.203192 -0.752614
-0.359772 -0.167044 -0.844448
-0.387606 0.031591 -0.715445
-0.385765 -0.108878 -0.715449
-0.051553 -0.431085 -0.695182
-0.131554 -0.510252 -0.800530
-0.371428 -0.312342 -0.725700
0.114660 -0.267657 -0.804599
-0.152239 -0.455622 -0.789654
0.001085 -0.094224 -0.878515
-0.139767 0.483402 -0.712508
0.285244 -0.156251 -0.802063
0.284544 -0.023281 -0.745438
-0.267509 0.290280 -0.805606
0.359221 -0.144121 -0.759475
-0.022578 -0.433314 -0.691654
-0.117151 0.333503 -0.774523
-0.094017 -0.377906 -0.781179
-0.048035 -0.395456 -0.872039
0.394756 0.028986 -0.721088
-0.055879 -0.413098 -0.794798
-0.240025 -0.489394 -0.693206
-0.221688 0.140648 -0.759138
0.375091 -0.112313 -0.779607
-0.143196 0.187158 -0.830650
0.110709 -0.362058 -0.654155
-0.294228 -0.012684 -0.756282
-0.159151 -0.222227 -0.879040
0.140996 -0.313104 -0.838174
0.044246 -0.058195 -0.882543
-0.257540 -0.249067 -0.702154
-0.192051 -0.314224 -0.707552
-0.269880 0.344458 -0.684880
0.094960 -0.371993 -0.856026
-0.139929 -0.309529 -0.758374
0.146371 -0.136834 -0.764726
0.107639 -0.324752 -0.681710
0.092628 0.007238 -0.845966
-0.194766 -0.452436 -0.663754
0.331887 -0.096848 -0.749040
0.093778 -0.317792 -0.699576
-0.216348 -0.291481 -0.871692
-0.113453 0.469660 -0.764764
0.040710 -0.379116 -0.664646
-0.214048 -0.275761 -0.895743
-0.144573 -0.184594 -0.892917
0.141531 -0.287122 -0.743371
-0.288495 -0.454383 -0.685043
0.052517 -0.320184 -0.805775
-0.218834 -0.398234 -0.760390
-0.222346 -0.488532 -0.727251
-0.281696 -0.353180 -0.735519
0.136704 -0.476984 -0.718109
0.102187 -0.186222 -0.748087
-0.256300 0.215552 -0.826733
-0.090566 0.418281 -0.799138
0.089861 -0.196718 -0.787678
-0.242698 0.106705 -0.797141
-0.060608 0.068402 -0.855587
-0.199746 -0.358244 -0.843464
-0.245257 -0.159260 -0.842665
-0.084419 0.205339 -0.800343
0.055998 -0.305954 -0.785442
-0.313894 0.179841 -0.796706
0.194125 -0.293841 -0.825685
-0.251173 -0.374438 -0.842037
-0.280759 0.347374 -0.673582
-0.227582 -0.308908 -0.883622
-0.282473 -0.013405 -0.761327
-0.020957 -0.366237 -0.755599
-0.190983 -0.454191 -0.746747
0.096441 -0.372998 -0.814605
0.015465 0.275450 -0.826827
-0.187367 -0.315576 -0.790569
-0.218876 0.054070 -0.811315
-0.377617 -0.267669 -0.730698
-0.094753 0.325605 -0.825569
-0.104715 -0.284171 -0.742831
0.014683 -0.264490 -0.829399
0.064935 0.349128 -0.823784
0.343992 -0.070289 -0.766786
-0.202503 -0.005330 -0.871092
-0.144972 -0.334924 -0.713932
0.068877 -0.183212 -0.854916
0.184483 -0.262083 -0.837834
0.092222 -0.299431 -0.741191
-0.158109 0.389567 -0.727869
0.252737 -0.216531 -0.792502
0.240406 -0.330004 -0.743858
0.109562 -0.031955 -0.843692
0.291682 -0.169189 -0.774075
-0.261213 -0.363781 -0.680361
0.100859 0.398029 -0.788213
0.144165 -0.365035 -0.684671
0.096159 -0.046879 -0.837370
0.111761 0.374655 -0.777408
-0.403862 -0.245705 -0.768020
0.208128 -0.084288 -0.731925
0.106523 -0.338869 -0.695431
-0.110544 0.435410 -0.678973
-0.260375 0.087645 -0.825402
-0.282720 0.284406 -0.714120
-0.051494 -0.520468 -0.789580
-0.295375 0.068998 -0.770504
0.156609 -0.181693 -0.710101
-0.148018 -0.033238 -0.745991
-0.081047 -0.042531 -0.875318
-0.161847 -0.257878 -0.801973
-0.093287 -0.515653 -0.736752
0.086111 -0.218498 -0.712917
0.214731 -0.299735 -0.833962
-0.142016 0.188567 -0.792535
0.167379 -0.445242 -0.734995
-0.262227 -0.205192 -0.774164
-0.118109 0.252950 -0.774795
-0.011800 -0.214202 -0.734984
-0.435697 0.053314 -0.723856
0.020598 -0.252656 -0.699218
-0.280621 -0.441930 -0.839653
-0.187789 -0.191793 -0.852004
-0.253614 -0.499654 -0.782676
-0.267404 -0.444979 -0.802622
-0.086999 0.411765 -0.753887
-0.266363 -0.092437 -0.865361
-0.445825 0.127362 -0.683994
0.151083 -0.136690 -0.718162
-0.264040 -0.128671 -0.724744
-0.019202 -0.497697 -0.813941
-0.343728 -0.154652 -0.802911
-0.075038 -0.103139 -0.799878
0.055973 -0.242091 -0.770715
-0.388752 0.224795 -0.675643
-0.065269 -0.409676 -0.743479
-0.048451 -0.362404 -0.770366
-0.310407 -0.295625 -0.747950
-0.258678 0.197261 -0.838305
-0.237463 -0.489501 -0.807341
0.030058 0.061060 -0.781751
0.117241 -0.433690 -0.747756
-0.325323 -0.449206 -0.686677
-0.059596 0.051234 -0.837362
0.383060 -0.078262 -0.745857
-0.168297 -0.071307 -0.894997
0.030047 -0.372343 -0.756505
-0.408673 0.019486 -0.787803
-0.251187 -0.416544 -0.706136
-0.294829 -0.195032 -0.839179
-0.072163 -0.400028 -0.765900
-0.149989 -0.124444 -0.727365
0.084683 0.179140 -0.779407
-0.145486 -0.118566 -0.767375
-0.153244 0.042287 -0.816809
0.052502 -0.122764 -0.810669
0.402908 0.003531 -0.727194
-0.075666 -0.162470 -0.897727
0.221583 -0.287025 -0.776994
-0.124174 -0.114125 -0.854864
-0.334913 0.021787 -0.754356
-0.421441 0.080597 -0.785173
-0.268988 -0.376572 -0.830582
0.169250 -0.142123 -0.695128
-0.261064 0.411759 -0.620567
0.042191 0.017124 -0.841312
0.402272 -0.056052 -0.706970
-0.170696 -0.008059 -0.755991
0.171403 -0.363128 -0.723202
-0.294636 -0.278991 -0.874140
-0.070147 -0.492785 -0.822034
0.051294 -0.456629 -0.698612
0.042801 -0.450124 -0.650685
-0.187856 0.001803 -0.775502
0.096064 0.159004 -0.836678
-0.229892 -0.198401 -0.787184
0.009098 -0.405852 -0.646252
0.149935 -0.364022 -0.852243
-0.007476 -0.486955 -0.677050
-0.293572 0.449002 -0.607165
-0.346450 -0.026087 -0.836738
0.192042 -0.374509 -0.736305
-0.071728 -0.098506 -0.825105
-0.410743 0.318803 -0.580442
0.169052 -0.428507 -0.721950
-0.354719 -0.112594 -0.708931
0.145321 -0.475240 -0.772388
0.067187 0.382135 -0.799602
-0.081905 -0.097388 -0.803762
0.026387 -0.045297 -0.793216
-0.207891 0.036761 -0.828147
